ply
format ascii 1.0
element vertex 838
property float x
property float y
property float z
end_header
-140.3134002685547 -78.99981689453125 117.03675079345703
-140.3136749267578 -79.001708984375 117.0370101928711
-140.3040771484375 -79.00300598144531 117.02912139892578
-140.3160400390625 -79.00074005126953 117.0390853881836
-140.33802795410156 -79.00486755371094 117.05742645263672
-140.317138671875 -79.000732421875 117.04010009765625
-140.317138671875 -79.000732421875 117.04010009765625
-140.30284118652344 -79.00457000732422 117.02839660644531
-140.30809020996094 -79.0068588256836 117.03279113769531
-140.4078826904297 -78.99526977539062 117.11579132080078
-140.31658935546875 -79.00316619873047 117.04007720947266
-140.3166046142578 -79.01043701171875 117.04019927978516
-140.3353729248047 -79.00638580322266 117.05607604980469
-140.311279296875 -79.00955200195312 117.03633880615234
-140.3254852294922 -79.00889587402344 117.04815673828125
-140.41749572753906 -79.00260162353516 117.12472534179688
-140.3137664794922 -79.01203918457031 117.03860473632812
-140.31468200683594 -79.01045989990234 117.03939056396484
-140.31533813476562 -79.01251983642578 117.0401611328125
-140.3279571533203 -79.00800323486328 117.05064392089844
-140.4208984375 -79.00446319580078 117.12794494628906
-140.32177734375 -79.01526641845703 117.04560852050781
-140.33795166015625 -79.01142883300781 117.05908203125
-140.31089782714844 -79.01675415039062 117.03665924072266
-140.3247833251953 -79.01905822753906 117.0484390258789
-140.42417907714844 -79.00747680664062 117.13105010986328
-140.31568908691406 -79.02018737792969 117.0410385131836
-140.42843627929688 -79.00941467285156 117.13478088378906
-140.3220977783203 -79.01598358154297 117.04652404785156
-140.33607482910156 -79.0174331665039 117.05815887451172
-140.3506622314453 -79.01603698730469 117.07040405273438
-140.4308319091797 -79.0122299194336 117.13728332519531
-140.43484497070312 -79.0138931274414 117.14064025878906
-140.33021545410156 -79.0196304321289 117.05388641357422
-140.34005737304688 -79.0202407836914 117.06211853027344
-140.3241424560547 -79.02153015136719 117.04898071289062
-140.3255615234375 -79.02045440673828 117.05022430419922
-140.33206176757812 -79.02308654785156 117.05577087402344
-140.3449249267578 -79.02262115478516 117.06657409667969
-140.3449249267578 -79.02262115478516 117.06657409667969
-140.34393310546875 -79.02294158935547 117.06591033935547
-140.4359130859375 -79.01718139648438 117.14266204833984
-140.33544921875 -79.0263900756836 117.05927276611328
-140.33544921875 -79.0263900756836 117.05927276611328
-140.3582000732422 -79.02960205078125 117.07872772216797
-140.35935974121094 -79.02959442138672 117.07975006103516
-140.36785888671875 -79.03379821777344 117.08716583251953
-140.3616485595703 -79.03445434570312 117.08240509033203
-140.34991455078125 -79.04071807861328 117.07359313964844
-140.34991455078125 -79.04071807861328 117.07359313964844
-140.38221740722656 -79.0525894165039 117.10208129882812
-140.38668823242188 -79.05445098876953 117.10586547851562
-140.38668823242188 -79.05445098876953 117.10586547851562
-140.48428344726562 -79.05288696289062 117.18779754638672
-140.48428344726562 -79.05288696289062 117.18779754638672
-140.38504028320312 -79.05841827392578 117.1055908203125
-140.385986328125 -79.05241394042969 117.10640716552734
-140.52903747558594 -79.0551528930664 117.22551727294922
-140.54257202148438 -79.05875396728516 117.23704528808594
-140.3876953125 -79.0597915649414 117.1082992553711
-140.47747802734375 -79.11495208740234 117.18338012695312
-140.47747802734375 -79.11495208740234 117.18338012695312
-140.39608764648438 -79.0643310546875 117.11575317382812
-140.4952850341797 -79.06181335449219 117.19828796386719
-140.3907470703125 -79.0662612915039 117.11155700683594
-140.38963317871094 -79.06494903564453 117.11068725585938
-140.50120544433594 -79.0665054321289 117.20391845703125
-140.50120544433594 -79.0665054321289 117.20391845703125
-140.40097045898438 -79.07015228271484 117.12113952636719
-140.40097045898438 -79.07015228271484 117.12113952636719
-140.45559692382812 -79.08158111572266 117.16681671142578
-140.51329040527344 -79.07469940185547 117.21504211425781
-140.44891357421875 -79.08489227294922 117.16207122802734
-140.5135498046875 -79.0770034790039 117.21581268310547
-140.39944458007812 -79.08821105957031 117.1217269897461
-140.39944458007812 -79.08821105957031 117.1217269897461
-140.42340087890625 -79.0867691040039 117.14199829101562
-140.43685913085938 -79.0845718383789 117.15322875976562
-140.52532958984375 -79.08615112304688 117.2267837524414
-140.52532958984375 -79.08615112304688 117.2267837524414
-140.44503784179688 -79.08546447753906 117.16008758544922
-140.44232177734375 -79.08470916748047 117.15800476074219
-140.42523193359375 -79.08880615234375 117.1441650390625
-140.60324096679688 -79.09688568115234 117.2929458618164
-140.55093383789062 -79.10491943359375 117.25081634521484
-140.55093383789062 -79.10491943359375 117.25081634521484
-140.4581756591797 -79.10579681396484 117.1741714477539
-140.55670166015625 -79.10952758789062 117.25629425048828
-140.4658966064453 -79.1086196899414 117.18135070800781
-140.4702911376953 -79.11343383789062 117.18515014648438
-140.4718780517578 -79.11315155029297 117.18647003173828
-140.4638214111328 -79.11132049560547 117.17987823486328
-140.50955200195312 -79.12142181396484 117.21814727783203
-136.46791076660156 -76.85015106201172 113.8416748046875
-140.5625762939453 -79.11528778076172 117.26219177246094
-140.46694946289062 -79.11260223388672 117.18279266357422
-140.47056579589844 -79.11595916748047 117.18623352050781
-140.47569274902344 -79.11781311035156 117.1905517578125
-140.46792602539062 -79.11197662353516 117.18407440185547
-140.49453735351562 -79.12030792236328 117.20690155029297
-140.4863739013672 -79.1266098022461 117.20049285888672
-140.52731323242188 -79.13411712646484 117.23463439941406
-140.4930877685547 -79.12310791015625 117.2061767578125
-140.47866821289062 -79.12306213378906 117.19430541992188
-140.49676513671875 -79.12999725341797 117.20951843261719
-140.5279541015625 -79.13285827636719 117.23555755615234
-140.5142364501953 -79.13383483886719 117.2242431640625
-140.51914978027344 -79.12792205810547 117.22826385498047
-140.5044708251953 -79.12911987304688 117.21622467041016
-140.4945068359375 -79.13099670410156 117.20809173583984
-140.51744079589844 -79.13329315185547 117.22718048095703
-140.51976013183594 -79.13285827636719 117.22909545898438
-140.46363830566406 -79.10396575927734 117.1823501586914
-140.49795532226562 -79.13285827636719 117.21128845214844
-140.5089569091797 -79.13197326660156 117.2204360961914
-140.5373992919922 -79.14646911621094 117.24421691894531
-140.5408935546875 -79.13982391357422 117.24739837646484
-140.51602172851562 -79.13465118408203 117.22706604003906
-140.5072784423828 -79.13868713378906 117.22019958496094
-140.5074005126953 -79.13129425048828 117.22029113769531
-140.52194213867188 -79.14917755126953 117.2325210571289
-140.5276336669922 -79.14093017578125 117.23725128173828
-140.5181427001953 -79.13777923583984 117.22935485839844
-140.51083374023438 -79.13880157470703 117.2232894897461
-140.51083374023438 -79.13880157470703 117.2232894897461
-140.52809143066406 -79.1418228149414 117.2377700805664
-140.51625061035156 -79.14210510253906 117.22801971435547
-140.5131072998047 -79.1410140991211 117.2255630493164
-140.4986114501953 -79.133544921875 117.21355438232422
-140.6236114501953 -79.15585327148438 117.3182373046875
-140.6236114501953 -79.15585327148438 117.3182373046875
-140.52293395996094 -79.14291381835938 117.23491668701172
-140.52293395996094 -79.14291381835938 117.23491668701172
-140.53086853027344 -79.15321350097656 117.24185943603516
-140.5152130126953 -79.14588165283203 117.22888946533203
-140.5263214111328 -79.15377807617188 117.23822021484375
-140.572265625 -79.1635513305664 117.27693176269531
-140.53721618652344 -79.15599822998047 117.24781036376953
-140.62744140625 -79.1592025756836 117.32281494140625
-140.63206481933594 -79.16265106201172 117.32678985595703
-140.63206481933594 -79.16265106201172 117.32678985595703
-140.57313537597656 -79.17354583740234 117.27825927734375
-140.5517578125 -79.15825653076172 117.26045227050781
-140.54063415527344 -79.15960693359375 117.25129699707031
-140.56777954101562 -79.16944885253906 117.27398681640625
-140.5618896484375 -79.16006469726562 117.26911163330078
-140.5940399169922 -79.16444396972656 117.29620361328125
-140.72286987304688 -79.1786880493164 117.4035415649414
-140.56105041503906 -79.16637420654297 117.2690658569336
-140.56105041503906 -79.16637420654297 117.2690658569336
-140.56887817382812 -79.16980743408203 117.27567291259766
-140.58538818359375 -79.16920471191406 117.28945922851562
-140.55349731445312 -79.16717529296875 117.2633056640625
-140.58575439453125 -79.17243194580078 117.29029846191406
-140.58016967773438 -79.17266845703125 117.28575134277344
-140.60040283203125 -79.1778793334961 117.30296325683594
-140.57862854003906 -79.17483520507812 117.2848892211914
-140.6172332763672 -79.1732177734375 117.3173828125
-140.5763397216797 -79.16954803466797 117.28356170654297
-140.6099853515625 -79.18208312988281 117.3116683959961
-140.59683227539062 -79.18278503417969 117.30093383789062
-140.5880889892578 -79.18096160888672 117.29369354248047
-140.59303283691406 -79.18252563476562 117.29783630371094
-140.60206604003906 -79.18636322021484 117.30547332763672
-140.59884643554688 -79.18094635009766 117.30281066894531
-140.6061553955078 -79.1856689453125 117.30924224853516
-140.61087036132812 -79.18937683105469 117.3133544921875
-140.59329223632812 -79.19021606445312 117.29917907714844
-140.6175537109375 -79.19083404541016 117.3194351196289
-140.61676025390625 -79.19231414794922 117.31903839111328
-140.65011596679688 -79.19682312011719 117.34680938720703
-140.6448211669922 -79.20092010498047 117.3424301147461
-140.61964416503906 -79.19306945800781 117.32148742675781
-140.61964416503906 -79.19306945800781 117.32148742675781
-140.65463256835938 -79.1951675415039 117.3506088256836
-140.6153564453125 -79.19161224365234 117.31816101074219
-140.62074279785156 -79.19527435302734 117.3227310180664
-140.67266845703125 -79.20177459716797 117.3659439086914
-140.66567993164062 -79.20530700683594 117.36038208007812
-140.62005615234375 -79.194091796875 117.32279205322266
-140.63613891601562 -79.19905853271484 117.3361587524414
-140.63583374023438 -79.20551300048828 117.33625030517578
-140.6523895263672 -79.20767211914062 117.35010528564453
-140.65899658203125 -79.20328521728516 117.35579681396484
-140.6560516357422 -79.21076202392578 117.3536148071289
-140.70431518554688 -79.22359466552734 117.39379119873047
-140.70431518554688 -79.22359466552734 117.39379119873047
-140.7054901123047 -79.21920013427734 117.39478302001953
-140.64749145507812 -79.20825958251953 117.34677124023438
-140.6646270751953 -79.21192169189453 117.36138916015625
-140.67782592773438 -79.21343994140625 117.37248229980469
-140.68045043945312 -79.21221923828125 117.37482452392578
-139.97747802734375 -78.8429946899414 116.78845977783203
-140.69363403320312 -79.22187042236328 117.38619232177734
-140.65533447265625 -79.21562194824219 117.35454559326172
-140.63790893554688 -79.21147918701172 117.34005737304688
-140.69647216796875 -79.2270278930664 117.39022827148438
-140.68295288085938 -79.22953796386719 117.37921142578125
-140.68295288085938 -79.22953796386719 117.37921142578125
-140.7459716796875 -79.24824523925781 117.43324279785156
-140.7022247314453 -79.23914337158203 117.39691925048828
-140.7036895751953 -79.24303436279297 117.39815521240234
-140.72032165527344 -79.2461166381836 117.412353515625
-140.73004150390625 -79.2536849975586 117.42110443115234
-140.7763214111328 -79.26248931884766 117.45975494384766
-140.71023559570312 -79.2553482055664 117.4052505493164
-140.73092651367188 -79.2573471069336 117.4224624633789
-140.70822143554688 -79.25361633300781 117.40362548828125
-140.8035430908203 -79.2657699584961 117.48297119140625
-140.760009765625 -79.26372528076172 117.44698333740234
-140.71739196777344 -79.25994873046875 117.41217803955078
-138.26068115234375 -77.8565444946289 115.36466979980469
-140.80540466308594 -79.27593994140625 117.48604583740234
-140.8252716064453 -79.28082275390625 117.50274658203125
-140.79856872558594 -79.27397918701172 117.4805679321289
-140.91831970214844 -79.29222106933594 117.58050537109375
-134.3415985107422 -75.64141082763672 112.08584594726562
-138.34475708007812 -77.90705108642578 115.43817138671875
-137.99253845214844 -77.67141723632812 115.14936065673828
-9.294862747192383 -5.306578636169434 7.770150184631348
-9.294862747192383 -5.306578636169434 7.770150184631348
-9.295076370239258 -5.306286811828613 7.770362854003906
-9.296408653259277 -5.305421352386475 7.7720136642456055
-9.296384811401367 -5.305410385131836 7.771996021270752
-9.295059204101562 -5.307589530944824 7.770925998687744
-9.295042037963867 -5.30779504776001 7.770998477935791
-9.295007705688477 -5.307878017425537 7.770981311798096
-9.295424461364746 -5.307307720184326 7.771366596221924
-9.29527473449707 -5.307418346405029 7.771254062652588
-9.29527473449707 -5.307418346405029 7.771254062652588
-9.296582221984863 -5.3054890632629395 7.772326469421387
-9.29651927947998 -5.305642127990723 7.772299766540527
-9.2952880859375 -5.307658672332764 7.771312713623047
-9.295178413391113 -5.307887554168701 7.77123498916626
-9.295400619506836 -5.3075385093688965 7.771429061889648
-9.2953462600708 -5.307689189910889 7.771422863006592
-9.2953462600708 -5.307689189910889 7.771422863006592
-9.29521656036377 -5.307977676391602 7.771354675292969
-9.29700756072998 -5.305117130279541 7.7728142738342285
-9.295515060424805 -5.30754280090332 7.771604537963867
-9.295113563537598 -5.308300018310547 7.771304130554199
-9.295217514038086 -5.308174133300781 7.771427631378174
-9.2965669631958 -5.3061323165893555 7.772558212280273
-9.324285507202148 -5.323996067047119 7.796375274658203
-9.295282363891602 -5.308218479156494 7.771561145782471
-9.295282363891602 -5.308218479156494 7.771561145782471
-9.295561790466309 -5.307882785797119 7.7718119621276855
-9.294805526733398 -5.309086799621582 7.7712178230285645
-9.29547119140625 -5.308112144470215 7.771790504455566
-9.29547119140625 -5.308112144470215 7.771790504455566
-9.295601844787598 -5.307913780212402 7.771899700164795
-9.29520320892334 -5.308599948883057 7.771606922149658
-9.295649528503418 -5.30793571472168 7.771984577178955
-9.295790672302246 -5.307868003845215 7.772165775299072
-9.295639991760254 -5.308107376098633 7.772055625915527
-9.295713424682617 -5.3079986572265625 7.772124767303467
-9.29488468170166 -5.309361934661865 7.771468162536621
-9.294861793518066 -5.30942440032959 7.771454334259033
-9.295845031738281 -5.308074474334717 7.772313117980957
-9.295845031738281 -5.308074474334717 7.772313117980957
-9.29476261138916 -5.309771537780762 7.7714433670043945
-9.295351028442383 -5.30925989151001 7.7719502449035645
-9.295675277709961 -5.30844259262085 7.772218704223633
-9.294898986816406 -5.309603691101074 7.771604061126709
-9.295913696289062 -5.308148384094238 7.772462844848633
-9.295913696289062 -5.308148384094238 7.772462844848633
-9.295729637145996 -5.3086066246032715 7.772383689880371
-9.295865058898926 -5.308384895324707 7.772498607635498
-9.295025825500488 -5.309797286987305 7.77184534072876
-9.295053482055664 -5.3098368644714355 7.7719244956970215
-9.29587459564209 -5.308552265167236 7.7725934982299805
-9.295783042907715 -5.308700084686279 7.772522449493408
-9.295185089111328 -5.309752941131592 7.7720465660095215
-9.295835494995117 -5.308664321899414 7.772576332092285
-9.294938087463379 -5.3101959228515625 7.771907806396484
-9.294764518737793 -5.310464859008789 7.7717671394348145
-9.2958402633667 -5.308850288391113 7.7726616859436035
-9.29473876953125 -5.310549259185791 7.771773815155029
-9.295832633972168 -5.308941841125488 7.772682189941406
-9.294919967651367 -5.310450553894043 7.771990776062012
-9.294919967651367 -5.310450553894043 7.771990776062012
-9.295278549194336 -5.309965133666992 7.7723188400268555
-9.295883178710938 -5.309028625488281 7.7728118896484375
-9.295075416564941 -5.310264587402344 7.772158622741699
-9.297098159790039 -5.307227611541748 7.773811340332031
-9.295051574707031 -5.310365200042725 7.772170066833496
-9.29460334777832 -5.311166763305664 7.771846294403076
-9.295944213867188 -5.309169769287109 7.77294397354126
-9.295839309692383 -5.309453964233398 7.772895812988281
-9.295839309692383 -5.309453964233398 7.772895812988281
-9.294913291931152 -5.310845851898193 7.772146224975586
-9.294967651367188 -5.310840606689453 7.772225856781006
-9.295042037963867 -5.310732841491699 7.772292613983154
-9.295890808105469 -5.3094072341918945 7.772982120513916
-9.295105934143066 -5.310662269592285 7.7723612785339355
-9.297181129455566 -5.307538032531738 7.774056434631348
-9.29503345489502 -5.310802936553955 7.772311210632324
-9.29503345489502 -5.310802936553955 7.772311210632324
-9.294866561889648 -5.311042785644531 7.772183418273926
-9.29576587677002 -5.309736251831055 7.772932052612305
-9.295157432556152 -5.310660362243652 7.772444725036621
-9.294897079467773 -5.311264991760254 7.7722907066345215
-9.294897079467773 -5.311264991760254 7.7722907066345215
-9.297216415405273 -5.307709217071533 7.774179935455322
-9.296884536743164 -5.307989597320557 7.773919582366943
-9.295361518859863 -5.310781478881836 7.772770881652832
-9.296070098876953 -5.309726715087891 7.773362636566162
-9.297784805297852 -5.307193756103516 7.774760723114014
-9.29599666595459 -5.309914588928223 7.77332067489624
-9.295167922973633 -5.3110222816467285 7.772669315338135
-9.295167922973633 -5.3110222816467285 7.772669315338135
-9.295021057128906 -5.311428070068359 7.772562503814697
-9.294960021972656 -5.311567306518555 7.772547245025635
-9.295377731323242 -5.310969829559326 7.772918224334717
-9.294998168945312 -5.3116888999938965 7.7726616859436035
-9.295075416564941 -5.311640739440918 7.77273416519165
-9.295075416564941 -5.311640739440918 7.77273416519165
-9.297152519226074 -5.308604717254639 7.774430751800537
-9.295742988586426 -5.310917377471924 7.77330207824707
-9.295051574707031 -5.311710357666016 7.772737979888916
-9.295051574707031 -5.311710357666016 7.772737979888916
-9.295166969299316 -5.3117876052856445 7.7729291915893555
-9.297205924987793 -5.308797836303711 7.774588584899902
-9.297998428344727 -5.307749271392822 7.775266170501709
-9.295321464538574 -5.311694622039795 7.773110389709473
-9.295598983764648 -5.311363697052002 7.773358345031738
-9.297467231750488 -5.30864143371582 7.774892807006836
-9.297467231750488 -5.30864143371582 7.774892807006836
-9.295732498168945 -5.311187744140625 7.773488998413086
-9.295732498168945 -5.311187744140625 7.773488998413086
-9.295366287231445 -5.31179666519165 7.7732062339782715
-9.295687675476074 -5.311337947845459 7.773473739624023
-9.296564102172852 -5.310068130493164 7.774209976196289
-9.31587028503418 -5.323019504547119 7.790910243988037
-9.29715347290039 -5.309269428253174 7.774704933166504
-9.296218872070312 -5.3107991218566895 7.773990154266357
-9.297812461853027 -5.308461666107178 7.775337219238281
-9.298040390014648 -5.308228969573975 7.7755279541015625
-9.295433044433594 -5.312070846557617 7.773431777954102
-9.29548454284668 -5.312065124511719 7.773505210876465
-9.296375274658203 -5.310837268829346 7.774247169494629
-9.295988082885742 -5.311399936676025 7.773972034454346
-9.295507431030273 -5.312191963195801 7.773587226867676
-9.296233177185059 -5.311368465423584 7.774197578430176
-9.296154022216797 -5.3113226890563965 7.774135112762451
-9.296159744262695 -5.311078071594238 7.774139404296875
-9.295345306396484 -5.312423229217529 7.773510932922363
-9.2962646484375 -5.311182975769043 7.77425479888916
-9.296529769897461 -5.310919284820557 7.77448034286499
-9.296529769897461 -5.310919284820557 7.77448034286499
-9.296377182006836 -5.3111138343811035 7.774364948272705
-9.296199798583984 -5.3115339279174805 7.7742791175842285
-9.296417236328125 -5.311220169067383 7.774465084075928
-9.297493934631348 -5.309702396392822 7.775344371795654
-9.297493934631348 -5.309702396392822 7.775344371795654
-9.297554969787598 -5.3097028732299805 7.775434494018555
-9.297447204589844 -5.309924602508545 7.775351047515869
-9.295633316040039 -5.312553405761719 7.773907661437988
-9.296628952026367 -5.311127185821533 7.774719715118408
-9.296628952026367 -5.311127185821533 7.774719715118408
-9.295958518981934 -5.3121137619018555 7.77418327331543
-9.297525405883789 -5.309902667999268 7.775461673736572
-9.295973777770996 -5.312202453613281 7.774202823638916
-9.296696662902832 -5.311254501342773 7.774856090545654
-9.29648208618164 -5.311542510986328 7.774683475494385
-9.297835350036621 -5.309642314910889 7.775791168212891
-9.297974586486816 -5.309598445892334 7.775965690612793
-9.296793937683105 -5.3112969398498535 7.775012969970703
-9.297469139099121 -5.310307025909424 7.77556037902832
-9.297903060913086 -5.309769153594971 7.77593994140625
-9.297985076904297 -5.3096747398376465 7.7760186195373535
-9.296905517578125 -5.311230659484863 7.775144100189209
-9.296905517578125 -5.311230659484863 7.775144100189209
-9.297906875610352 -5.309874057769775 7.775974750518799
-9.296164512634277 -5.312300682067871 7.774560928344727
-9.296164512634277 -5.312300682067871 7.774560928344727
-9.296257019042969 -5.312244892120361 7.774649143218994
-9.296138763427734 -5.312461853027344 7.774568557739258
-9.296157836914062 -5.312602519989014 7.77459192276001
-9.296157836914062 -5.312602519989014 7.77459192276001
-9.298216819763184 -5.309535026550293 7.776265621185303
-9.29605484008789 -5.31253719329834 7.774531364440918
-9.298476219177246 -5.309106349945068 7.776498317718506
-9.297965049743652 -5.309942722320557 7.776089668273926
-9.29685115814209 -5.311437606811523 7.775192737579346
-9.29686450958252 -5.311450481414795 7.775204181671143
-9.297079086303711 -5.3114094734191895 7.775395393371582
-9.297079086303711 -5.3114094734191895 7.775395393371582
-9.296120643615723 -5.3126301765441895 7.774630546569824
-9.296388626098633 -5.312289714813232 7.774864673614502
-9.296296119689941 -5.3124871253967285 7.774797439575195
-9.296296119689941 -5.3124871253967285 7.774797439575195
-9.29626178741455 -5.312560558319092 7.7747883796691895
-9.296012878417969 -5.312853813171387 7.774586200714111
-9.297687530517578 -5.310525894165039 7.775947570800781
-9.297185897827148 -5.311206817626953 7.775539875030518
-9.296370506286621 -5.31237268447876 7.774880409240723
-9.297666549682617 -5.310593605041504 7.775937557220459
-9.297149658203125 -5.3113179206848145 7.7755208015441895
-9.299128532409668 -5.30855655670166 7.777131080627441
-9.298163414001465 -5.309943675994873 7.776352882385254
-9.298163414001465 -5.309943675994873 7.776352882385254
-9.296346664428711 -5.312491416931152 7.77488374710083
-9.298221588134766 -5.309922218322754 7.776417255401611
-9.298041343688965 -5.310184001922607 7.776296615600586
-9.297809600830078 -5.31064510345459 7.776134014129639
-9.297809600830078 -5.31064510345459 7.776134014129639
-9.298235893249512 -5.310034275054932 7.776484489440918
-9.297731399536133 -5.310817241668701 7.776101589202881
-9.297210693359375 -5.311966896057129 7.77571439743042
-9.29747200012207 -5.311254978179932 7.7759270668029785
-9.297741889953613 -5.310941696166992 7.776165008544922
-9.296273231506348 -5.313061714172363 7.774989128112793
-9.297561645507812 -5.311269760131836 7.776054859161377
-9.297721862792969 -5.3112263679504395 7.7762041091918945
-9.297845840454102 -5.310941696166992 7.776311874389648
-9.296316146850586 -5.31308650970459 7.775073528289795
-9.29831314086914 -5.310347080230713 7.776705741882324
-9.296639442443848 -5.312737464904785 7.775359153747559
-9.297911643981934 -5.310982704162598 7.776403903961182
-9.296351432800293 -5.313144683837891 7.775141716003418
-9.296405792236328 -5.313146591186523 7.775203704833984
-9.297657012939453 -5.311453819274902 7.7762370109558105
-9.297829627990723 -5.311209678649902 7.776382923126221
-9.296369552612305 -5.313243865966797 7.775199890136719
-9.2977876663208 -5.311283588409424 7.776357650756836
-9.298333168029785 -5.310571193695068 7.776817798614502
-9.298248291015625 -5.310843467712402 7.776768207550049
-9.297808647155762 -5.311395645141602 7.776424407958984
-9.297808647155762 -5.311395645141602 7.776424407958984
-9.296329498291016 -5.313413143157959 7.775228977203369
-9.297652244567871 -5.311708450317383 7.7763285636901855
-9.297059059143066 -5.312510967254639 7.775851249694824
-9.297931671142578 -5.311336040496826 7.776571273803711
-9.296377182006836 -5.3134870529174805 7.775310039520264
-9.297138214111328 -5.312474250793457 7.775933742523193
-9.297731399536133 -5.311600208282471 7.77642822265625
-9.297160148620605 -5.312458038330078 7.775969505310059
-9.297698974609375 -5.311769962310791 7.776413440704346
-9.297713279724121 -5.311710357666016 7.776426315307617
-9.297545433044434 -5.31200647354126 7.776294708251953
-9.298216819763184 -5.311050891876221 7.776841640472412
-9.298282623291016 -5.311010837554932 7.7768964767456055
-9.297408103942871 -5.31221342086792 7.776196479797363
-9.297243118286133 -5.312404155731201 7.776063919067383
-9.297199249267578 -5.312446117401123 7.776030540466309
-9.29833984375 -5.310955047607422 7.776965141296387
-9.298375129699707 -5.310891151428223 7.776994228363037
-9.298060417175293 -5.311307430267334 7.776740550994873
-9.297337532043457 -5.312342166900635 7.776155471801758
-9.297645568847656 -5.31182336807251 7.776416778564453
-9.297138214111328 -5.3126220703125 7.776010036468506
-9.296613693237305 -5.3133344650268555 7.775588035583496
-9.298093795776367 -5.311440944671631 7.7768073081970215
-9.297332763671875 -5.312442779541016 7.776190757751465
-9.297625541687012 -5.312037944793701 7.776436805725098
-9.298346519470215 -5.311080455780029 7.777026176452637
-9.297527313232422 -5.312178134918213 7.776360511779785
-9.297433853149414 -5.312307834625244 7.776289939880371
-9.296939849853516 -5.313047409057617 7.77589750289917
-9.296913146972656 -5.3130340576171875 7.775877952575684
-9.296937942504883 -5.313050270080566 7.775898456573486
-9.297874450683594 -5.311800003051758 7.776662826538086
-9.297874450683594 -5.311800003051758 7.776662826538086
-9.297874450683594 -5.311800003051758 7.776662826538086
-9.298412322998047 -5.311089515686035 7.7771100997924805
-9.297880172729492 -5.311769485473633 7.776679515838623
-9.298367500305176 -5.3112101554870605 7.777097225189209
-9.297804832458496 -5.31195068359375 7.77664041519165
-9.297804832458496 -5.31195068359375 7.77664041519165
-9.2991361618042 -5.31016731262207 7.777731418609619
-9.2991361618042 -5.31016731262207 7.777731418609619
-9.298975944519043 -5.310432434082031 7.77760124206543
-9.29808235168457 -5.311652660369873 7.776882171630859
-9.29720687866211 -5.312848091125488 7.776180267333984
-9.298429489135742 -5.31126594543457 7.777186393737793
-9.298385620117188 -5.311313152313232 7.777156829833984
-9.298365592956543 -5.311362266540527 7.777142524719238
-9.298446655273438 -5.311233997344971 7.777209758758545
-9.297173500061035 -5.312976837158203 7.776181221008301
-9.297173500061035 -5.312976837158203 7.776181221008301
-9.297414779663086 -5.312644004821777 7.776382923126221
-9.29796314239502 -5.31195068359375 7.776829719543457
-9.298356056213379 -5.311429977416992 7.777163982391357
-9.297850608825684 -5.312157154083252 7.776761054992676
-9.298433303833008 -5.311354160308838 7.777238368988037
-9.298433303833008 -5.311354160308838 7.777238368988037
-9.2982177734375 -5.31160831451416 7.777062892913818
-9.298410415649414 -5.3114166259765625 7.777224540710449
-9.297947883605957 -5.312041759490967 7.776849269866943
-9.29715633392334 -5.313138961791992 7.776217460632324
-9.297103881835938 -5.31325626373291 7.7761993408203125
-9.298362731933594 -5.311551570892334 7.777222633361816
-9.298395156860352 -5.311493396759033 7.777248382568359
-9.298222541809082 -5.311763286590576 7.777109622955322
-9.298222541809082 -5.311763286590576 7.777109622955322
-9.297662734985352 -5.312456130981445 7.7766594886779785
-9.29794979095459 -5.312107086181641 7.776893138885498
-9.29794979095459 -5.312107086181641 7.776893138885498
-9.297152519226074 -5.313273906707764 7.776265621185303
-9.297562599182129 -5.312710285186768 7.776605606079102
-9.297562599182129 -5.312710285186768 7.776605606079102
-9.298453330993652 -5.311701774597168 7.777352333068848
-9.298429489135742 -5.31168794631958 7.7773332595825195
-9.298445701599121 -5.311612606048584 7.777346611022949
-9.297994613647461 -5.312211513519287 7.776985168457031
-9.297877311706543 -5.312358856201172 7.776889324188232
-9.298567771911621 -5.311471462249756 7.777458190917969
-9.297215461730957 -5.313315391540527 7.776372909545898
-9.298530578613281 -5.311569690704346 7.777454376220703
-9.298404693603516 -5.311767101287842 7.777358531951904
-9.298299789428711 -5.311956405639648 7.777277946472168
-9.296875 -5.31388521194458 7.776126384735107
-9.296947479248047 -5.313844680786133 7.776185989379883
-9.298458099365234 -5.311731815338135 7.777411460876465
-9.297578811645508 -5.31294059753418 7.776699542999268
-9.299578666687012 -5.3102312088012695 7.778325080871582
-9.298022270202637 -5.312340259552002 7.77706241607666
-9.296807289123535 -5.31393575668335 7.776079177856445
-9.298521041870117 -5.311675071716309 7.7774739265441895
-9.296998023986816 -5.313751220703125 7.776240825653076
-9.296998023986816 -5.313751220703125 7.776240825653076
-9.297968864440918 -5.3123884201049805 7.7770304679870605
-9.29697322845459 -5.313885688781738 7.776258945465088
-9.297014236450195 -5.313835144042969 7.776294231414795
-9.298585891723633 -5.311736106872559 7.777587890625
-9.297682762145996 -5.31296968460083 7.776870250701904
-9.295825958251953 -5.3118181228637695 7.7752909660339355
-9.298440933227539 -5.312015056610107 7.777500152587891
-9.29801082611084 -5.3127031326293945 7.777188777923584
-9.298582077026367 -5.311953544616699 7.777654647827148
-9.298460960388184 -5.312114715576172 7.77755880355835
-9.298500061035156 -5.31210470199585 7.777603626251221
-9.296939849853516 -5.31426477432251 7.776359558105469
-9.298776626586914 -5.311827182769775 7.777855396270752
-9.297155380249023 -5.314045429229736 7.776557445526123
-9.297542572021484 -5.313540458679199 7.77687931060791
-9.297762870788574 -5.313269138336182 7.7770586013793945
-9.297451972961426 -5.313687801361084 7.776816368103027
-9.29731273651123 -5.313905715942383 7.776712417602539
-9.29870319366455 -5.312071323394775 7.777851581573486
-9.298829078674316 -5.311925888061523 7.777955055236816
-9.297416687011719 -5.3137993812561035 7.7768120765686035
-9.297456741333008 -5.313758850097656 7.77685022354126
-9.297840118408203 -5.3132429122924805 7.777172088623047
-9.297840118408203 -5.3132429122924805 7.777172088623047
-9.298755645751953 -5.312011241912842 7.777919292449951
-9.297494888305664 -5.313767433166504 7.776906490325928
-9.29849624633789 -5.312437057495117 7.777723789215088
-9.297276496887207 -5.314103126525879 7.7767415046691895
-9.29810905456543 -5.31298828125 7.777419090270996
-9.298846244812012 -5.312018394470215 7.7780232429504395
-9.297463417053223 -5.313880443572998 7.776908874511719
-9.297377586364746 -5.3140549659729 7.77685022354126
-9.299230575561523 -5.311564922332764 7.778360366821289
-9.298115730285645 -5.313120365142822 7.777464389801025
-9.297964096069336 -5.313416481018066 7.777365207672119
-9.2976713180542 -5.313794136047363 7.7771477699279785
-9.298844337463379 -5.312257766723633 7.778109550476074
-9.297645568847656 -5.313942909240723 7.7771830558776855
-9.29919719696045 -5.3119282722473145 7.778446197509766
-9.299921035766602 -5.310976982116699 7.779036521911621
-9.298529624938965 -5.312838554382324 7.777916431427002
-9.297327041625977 -5.314420223236084 7.776950359344482
-9.297327041625977 -5.314420223236084 7.776950359344482
-9.298501014709473 -5.312982559204102 7.777918338775635
-9.297459602355957 -5.314180374145508 7.7770771980285645
-9.298521995544434 -5.312924861907959 7.7779364585876465
-9.298992156982422 -5.312392234802246 7.778324604034424
-9.298944473266602 -5.31240177154541 7.778285026550293
-9.290297508239746 -5.313100337982178 7.77126407623291
-9.298276901245117 -5.3133039474487305 7.777751922607422
-9.298575401306152 -5.312938213348389 7.77800178527832
-9.300259590148926 -5.310728549957275 7.779383659362793
-9.29779052734375 -5.314053058624268 7.777408599853516
-9.29779052734375 -5.314053058624268 7.777408599853516
-9.297725677490234 -5.3142571449279785 7.777379989624023
-9.297731399536133 -5.314246654510498 7.777397632598877
-9.29832649230957 -5.313498020172119 7.777891159057617
-9.298583030700684 -5.313104152679443 7.778099060058594
-9.297611236572266 -5.314524173736572 7.7773332595825195
-9.29830551147461 -5.313612937927246 7.777904033660889
-9.298946380615234 -5.312849521636963 7.778452396392822
-9.297859191894531 -5.314278602600098 7.777570724487305
-9.298556327819824 -5.313374996185303 7.778140068054199
-9.300216674804688 -5.3112263679504395 7.779510021209717
-9.297669410705566 -5.314630508422852 7.777451515197754
-9.29771900177002 -5.314560413360596 7.777494430541992
-9.29854965209961 -5.313555717468262 7.77817964553833
-9.29854965209961 -5.313555717468262 7.77817964553833
-9.298584938049316 -5.313462734222412 7.778212547302246
-9.298584938049316 -5.313462734222412 7.778212547302246
-9.29777717590332 -5.314563274383545 7.777573108673096
-9.297882080078125 -5.314488410949707 7.7776665687561035
-9.297740936279297 -5.3147053718566895 7.7775774002075195
-9.29870891571045 -5.31348991394043 7.778375625610352
-9.297825813293457 -5.314655303955078 7.777660369873047
-9.297874450683594 -5.314585208892822 7.777703285217285
-9.29775619506836 -5.314789295196533 7.77762508392334
-9.297934532165527 -5.314566135406494 7.777778625488281
-9.298616409301758 -5.313735485076904 7.778334140777588
-9.29865837097168 -5.313617706298828 7.778377532958984
-9.29792594909668 -5.314671039581299 7.777793884277344
-9.29792594909668 -5.314671039581299 7.777793884277344
-9.297770500183105 -5.3148932456970215 7.777669906616211
-9.297861099243164 -5.314775466918945 7.7777485847473145
-9.298527717590332 -5.313925266265869 7.7783050537109375
-9.297840118408203 -5.314920425415039 7.777770519256592
-9.298188209533691 -5.314394950866699 7.778052806854248
-9.298188209533691 -5.314394950866699 7.778052806854248
-9.297985076904297 -5.314704895019531 7.77789306640625
-9.298565864562988 -5.313911437988281 7.778371334075928
-9.298684120178223 -5.31381368637085 7.778468608856201
-9.298142433166504 -5.314593315124512 7.778040885925293
-9.298677444458008 -5.313924789428711 7.7784881591796875
-9.297914505004883 -5.314944744110107 7.777872085571289
-9.297914505004883 -5.314944744110107 7.777872085571289
-9.297800064086914 -5.3150529861450195 7.777781963348389
-9.298584938049316 -5.314149379730225 7.7784423828125
-9.29873275756836 -5.313974857330322 7.778595447540283
-9.29792594909668 -5.315104007720947 7.777950286865234
-9.299728393554688 -5.312780380249023 7.779428005218506
-9.299446105957031 -5.313145160675049 7.779202461242676
-9.298517227172852 -5.314327239990234 7.77844762802124
-9.299226760864258 -5.313512802124023 7.779051303863525
-9.299286842346191 -5.313509464263916 7.779102802276611
-9.298460960388184 -5.314506530761719 7.778433799743652
-9.298961639404297 -5.313892364501953 7.778848648071289
-9.298961639404297 -5.313892364501953 7.778848648071289
-9.297884941101074 -5.31505823135376 7.777970314025879
-9.298770904541016 -5.314197063446045 7.778702259063721
-9.296052932739258 -5.311425685882568 7.776345252990723
-9.298877716064453 -5.313931941986084 7.778803825378418
-9.298754692077637 -5.314249038696289 7.77871561050415
-9.299331665039062 -5.313514709472656 7.7791852951049805
-9.298089027404785 -5.314876556396484 7.778187274932861
-9.297992706298828 -5.315244674682617 7.778117656707764
-9.299413681030273 -5.313477516174316 7.779280185699463
-9.298789024353027 -5.314349174499512 7.778785705566406
-9.298078536987305 -5.315274715423584 7.7782158851623535
-9.29808235168457 -5.315237045288086 7.778219223022461
-9.298830032348633 -5.3142991065979 7.778831958770752
-9.299029350280762 -5.3140869140625 7.779004096984863
-9.299029350280762 -5.3140869140625 7.779004096984863
-9.298462867736816 -5.314733028411865 7.778553009033203
-9.30154800415039 -5.3108720779418945 7.781070709228516
-9.30154800415039 -5.3108720779418945 7.781070709228516
-9.2980375289917 -5.315472602844238 7.778237819671631
-9.298866271972656 -5.314405918121338 7.778910160064697
-9.298823356628418 -5.314422130584717 7.778878211975098
-9.299015998840332 -5.314232349395752 7.779036521911621
-9.299056053161621 -5.314147472381592 7.77907657623291
-9.299039840698242 -5.314205646514893 7.779067516326904
-9.298762321472168 -5.314592361450195 7.77884578704834
-9.298762321472168 -5.314592361450195 7.77884578704834
-9.298870086669922 -5.31459903717041 7.778967380523682
-9.301591873168945 -5.311058044433594 7.781178951263428
-9.31678295135498 -5.321515083312988 7.794402599334717
-9.299497604370117 -5.313737869262695 7.779482841491699
-9.29903507232666 -5.314302921295166 7.779114723205566
-9.298928260803223 -5.314535617828369 7.779033660888672
-9.298928260803223 -5.314535617828369 7.779033660888672
-9.299299240112305 -5.314117431640625 7.779356479644775
-9.299128532409668 -5.314342021942139 7.77922248840332
-9.298879623413086 -5.314633846282959 7.779021263122559
-9.29889965057373 -5.314708709716797 7.779053211212158
-9.301653861999512 -5.31121826171875 7.781292915344238
-9.301653861999512 -5.31121826171875 7.781292915344238
-9.299542427062988 -5.313868045806885 7.77957820892334
-9.298771858215332 -5.315012454986572 7.778957843780518
-9.298883438110352 -5.3147501945495605 7.779049873352051
-9.298659324645996 -5.3150434494018555 7.778875827789307
-9.298937797546387 -5.314785957336426 7.7791337966918945
-9.29900074005127 -5.31471061706543 7.7791876792907715
-9.299360275268555 -5.314338684082031 7.779486179351807
-9.298863410949707 -5.3149261474609375 7.779090881347656
-9.299212455749512 -5.31446647644043 7.77937650680542
-9.298274993896484 -5.31561279296875 7.778625011444092
-9.298770904541016 -5.3150434494018555 7.779027462005615
-9.298770904541016 -5.3150434494018555 7.779027462005615
-9.298955917358398 -5.3148627281188965 7.77918815612793
-9.298954963684082 -5.314910411834717 7.779201030731201
-9.299468994140625 -5.314315319061279 7.77963399887085
-9.298992156982422 -5.314940929412842 7.779263973236084
-9.29836368560791 -5.315793037414551 7.778769493103027
-9.298959732055664 -5.315035343170166 7.779254913330078
-9.298321723937988 -5.315863609313965 7.778741836547852
-9.298863410949707 -5.315210342407227 7.779190540313721
-9.299524307250977 -5.314453125 7.779760360717773
-9.299042701721191 -5.3150954246521 7.779379844665527
-9.299454689025879 -5.314646244049072 7.779715538024902
-9.301733016967773 -5.311748504638672 7.781580448150635
-9.29947280883789 -5.3146071434021 7.779748916625977
-9.29959487915039 -5.314454555511475 7.779849529266357
-9.29959487915039 -5.314454555511475 7.779849529266357
-9.298444747924805 -5.315966606140137 7.778932094573975
-9.299077987670898 -5.31514835357666 7.779447078704834
-9.299077987670898 -5.31514835357666 7.779447078704834
-9.299489974975586 -5.314691543579102 7.779792785644531
-9.299144744873047 -5.315162658691406 7.779520034790039
-9.301737785339355 -5.311949729919434 7.7816619873046875
-9.299186706542969 -5.315189361572266 7.77960729598999
-9.299142837524414 -5.315209865570068 7.779581069946289
-9.299173355102539 -5.315299987792969 7.779608726501465
-9.299764633178711 -5.31456995010376 7.78010368347168
-9.299155235290527 -5.315385341644287 7.779624938964844
-9.299007415771484 -5.3155975341796875 7.779506206512451
-9.29935073852539 -5.315186977386475 7.7798004150390625
-9.299241065979004 -5.315320014953613 7.7797136306762695
-9.299619674682617 -5.314997673034668 7.780022621154785
-9.298834800720215 -5.315974235534668 7.779388904571533
-9.300009727478027 -5.314380645751953 7.780343532562256
-9.299262046813965 -5.315293312072754 7.77973747253418
-9.299262046813965 -5.315293312072754 7.77973747253418
-9.298623085021973 -5.316136360168457 7.779222011566162
-9.299229621887207 -5.315373420715332 7.779714584350586
-9.299100875854492 -5.3155927658081055 7.7796220779418945
-9.301858901977539 -5.312171459197998 7.781880855560303
-9.299144744873047 -5.315532684326172 7.779687881469727
-9.300028800964355 -5.314523220062256 7.780419826507568
-9.300107955932617 -5.314427852630615 7.780484676361084
-9.300107955932617 -5.314427852630615 7.780484676361084
-9.298707008361816 -5.31619119644165 7.779352188110352
-9.299149513244629 -5.3156867027282715 7.779725551605225
-9.299442291259766 -5.315335750579834 7.779965877532959
-9.301888465881348 -5.312289714813232 7.781953811645508
-9.29871940612793 -5.316266059875488 7.779382228851318
-9.299565315246582 -5.315200328826904 7.780073165893555
-9.299325942993164 -5.31556510925293 7.779900074005127
-9.29892635345459 -5.315892696380615 7.77957820892334
-9.270514488220215 -5.297957897186279 7.755345344543457
-9.298735618591309 -5.3163042068481445 7.7794270515441895
-9.299728393554688 -5.315125465393066 7.780243396759033
-9.300131797790527 -5.31465482711792 7.780584335327148
-9.299866676330566 -5.314938545227051 7.780368328094482
-9.299087524414062 -5.315893650054932 7.779739856719971
-9.29951000213623 -5.315494060516357 7.780092716217041
-9.301948547363281 -5.312443256378174 7.7820725440979
-9.301948547363281 -5.312443256378174 7.7820725440979
-9.299691200256348 -5.315216541290283 7.78024435043335
-9.299430847167969 -5.315564155578613 7.78003454208374
-9.299225807189941 -5.315784454345703 7.779880046844482
-9.299063682556152 -5.316110134124756 7.779778957366943
-9.299079895019531 -5.316110610961914 7.7797980308532715
-9.299600601196289 -5.3155646324157715 7.7802228927612305
-9.299490928649902 -5.315675735473633 7.780135631561279
-9.299490928649902 -5.315675735473633 7.780135631561279
-9.298943519592285 -5.316328525543213 7.779702186584473
-9.299253463745117 -5.31601095199585 7.779961585998535
-9.299870491027832 -5.315267086029053 7.7804718017578125
-9.300122261047363 -5.315011501312256 7.7806925773620605
-9.29952335357666 -5.315769195556641 7.780215263366699
-9.302009582519531 -5.312709331512451 7.782245635986328
-9.299365997314453 -5.3160223960876465 7.780109882354736
-9.299365997314453 -5.316031455993652 7.780111312866211
-9.299356460571289 -5.316084861755371 7.780116558074951
-9.299766540527344 -5.315736770629883 7.78046989440918
-9.29955005645752 -5.3159027099609375 7.780292510986328
-9.29955005645752 -5.3159027099609375 7.780292510986328
-9.302057266235352 -5.3128156661987305 7.782331466674805
-9.29935073852539 -5.316138744354248 7.780147552490234
-9.299363136291504 -5.31619930267334 7.78016996383667
-9.29997730255127 -5.3156328201293945 7.7806782722473145
-9.29969310760498 -5.315916538238525 7.78047513961792
-9.29905891418457 -5.316675662994385 7.779967308044434
-9.300215721130371 -5.31533670425415 7.780916690826416
-9.300094604492188 -5.3155412673950195 7.780820846557617
-9.29946231842041 -5.316267013549805 7.780313014984131
-9.300137519836426 -5.315439224243164 7.780861854553223
-9.299470901489258 -5.316323280334473 7.780330657958984
-9.299226760864258 -5.3164849281311035 7.780135631561279
-9.299667358398438 -5.316051483154297 7.780501365661621
-9.299620628356934 -5.316338062286377 7.780470848083496
-9.299569129943848 -5.316193103790283 7.78043794631958
-9.299930572509766 -5.315806865692139 7.780734062194824
-9.299874305725098 -5.315951347351074 7.780702590942383
-9.299782752990723 -5.316020965576172 7.780630111694336
-9.299542427062988 -5.316361904144287 7.780441761016846
-9.299880027770996 -5.315913200378418 7.780714988708496
-9.299932479858398 -5.315898418426514 7.780766487121582
-9.299932479858398 -5.315898418426514 7.780766487121582
-9.3001127243042 -5.315679550170898 7.780917644500732
-9.29946517944336 -5.316475868225098 7.780399799346924
-9.29952335357666 -5.316463470458984 7.78045129776001
-9.302197456359863 -5.3131794929504395 7.782625675201416
-9.299850463867188 -5.316044807434082 7.780728816986084
-9.299574851989746 -5.316404342651367 7.780514717102051
-9.300204277038574 -5.315730094909668 7.781047344207764
-9.299921035766602 -5.316067218780518 7.780820369720459
-9.30030345916748 -5.315719127655029 7.781141757965088
-9.299605369567871 -5.31657600402832 7.780581474304199
-9.30223560333252 -5.313338279724121 7.782723426818848
-9.299572944641113 -5.3166327476501465 7.7805681228637695
-9.299657821655273 -5.316532611846924 7.780638217926025
-9.300336837768555 -5.315738201141357 7.781200885772705
-9.30002498626709 -5.31603479385376 7.78095006942749
-9.299650192260742 -5.316587924957275 7.780656814575195
-9.300163269042969 -5.315959453582764 7.781074523925781
-9.299347877502441 -5.316954612731934 7.780418395996094
-9.299622535705566 -5.316719055175781 7.780657768249512
-9.300122261047363 -5.316089630126953 7.781066417694092
-9.300253868103027 -5.315920352935791 7.781174182891846
-9.299386978149414 -5.317028522491455 7.780478477478027
-9.302321434020996 -5.3134331703186035 7.782862186431885
-9.29969310760498 -5.316650867462158 7.780735969543457
-9.299968719482422 -5.316351413726807 7.780962944030762
-9.300347328186035 -5.315884113311768 7.781278133392334
-9.300094604492188 -5.316235065460205 7.781078338623047
-9.300408363342285 -5.315853118896484 7.781335830688477
-9.302350997924805 -5.313509464263916 7.782923221588135
-9.299925804138184 -5.316495418548584 7.780963897705078
-9.299925804138184 -5.316495418548584 7.780963897705078
-9.299681663513184 -5.316713809967041 7.780768871307373
-9.299846649169922 -5.31667423248291 7.780907154083252
-9.2999906539917 -5.316403865814209 7.7810258865356445
-9.29997444152832 -5.316441059112549 7.781022548675537
-9.299711227416992 -5.316839694976807 7.780810356140137
-9.300137519836426 -5.316340446472168 7.781174182891846
-9.300137519836426 -5.316340446472168 7.781174182891846
-9.299560546875 -5.317047119140625 7.780715465545654
-9.300073623657227 -5.316489219665527 7.781135559082031
-9.300074577331543 -5.316372871398926 7.781141757965088
-9.302388191223145 -5.313722610473633 7.783033847808838
-9.299753189086914 -5.31689453125 7.780905246734619
-9.299753189086914 -5.31689453125 7.780905246734619
-9.300192832946777 -5.316478729248047 7.781276226043701
-9.30020523071289 -5.316467761993408 7.781310558319092
-9.30030345916748 -5.31643533706665 7.781419277191162
-9.29979133605957 -5.317355155944824 7.781100273132324
-9.29979133605957 -5.317355155944824 7.781100273132324
-9.300189018249512 -5.31697940826416 7.781473636627197
-9.300237655639648 -5.3170342445373535 7.781545639038086
-9.302607536315918 -5.314234256744385 7.783477306365967
-9.3033447265625 -5.31336784362793 7.78408145904541
-9.300225257873535 -5.317155838012695 7.781569957733154
-9.300271034240723 -5.317134857177734 7.781612873077393
-9.300225257873535 -5.317367076873779 7.781628131866455
-9.300156593322754 -5.317571640014648 7.7815985679626465
